ply
format ascii 1.0
comment PCL generated
element vertex 1597
property float x
property float y
property float z
element camera 0
property float view_px
property float view_py
property float view_pz
property float x_axisx
property float x_axisy
property float x_axisz
property float y_axisx
property float y_axisy
property float y_axisz
property float z_axisx
property float z_axisy
property float z_axisz
property float focal
property float scalex
property float scaley
property float centerx
property float centery
property int viewportx
property int viewporty
property float k1
property float k2
end_header
72.470787 58.462891 140.56721
72.470673 58.463017 140.60077
72.469681 58.460499 140.63345
72.469414 58.460175 140.66699
72.470131 58.462055 140.70059
72.470116 58.46172 140.73384
72.468185 58.457134 140.76704
72.418022 58.305599 140.78091
72.415367 58.298038 140.81258
72.412346 58.289379 140.84456
72.408752 58.278988 140.87613
72.406158 58.271606 140.90775
72.402344 58.260536 140.93925
72.397797 58.247261 140.9704
72.395164 58.239777 141.00224
72.410248 58.285988 141.04237
72.411026 58.288857 141.07593
72.464134 58.449615 141.13577
72.031143 57.136665 140.94693
72.021095 57.107307 140.97107
72.021248 57.108231 141.0006
72.371353 58.170349 141.22136
72.306488 57.97414 141.21771
72.426186 58.386753 144.39481
72.426231 58.387676 144.43571
72.424469 58.383114 144.4745
72.42321 58.380066 144.51373
72.401917 58.31427 144.51952
72.36554 58.205025 144.50186
72.348564 58.154083 144.51477
72.172684 57.622528 144.49792
72.151367 57.5583 144.50052
72.127541 57.486404 144.49782
72.105026 57.418518 144.49707
72.08416 57.354061 144.49756
72.062866 57.290657 144.49779
72.041458 57.22612 144.49724
72.020691 57.163509 144.49794
72.000031 57.101254 144.49829
71.977806 57.034206 144.49515
71.957527 56.973064 144.49503
71.937569 56.912926 144.49536
71.917366 56.85202 144.4944
71.861191 56.680565 144.42363
71.855736 56.663948 144.44991
71.797867 56.488754 144.37483
71.786858 56.455883 144.38997
71.778267 56.430382 144.40854
71.774025 56.418186 144.43658
71.767372 56.398609 144.45943
71.743095 56.324512 144.44685
71.729134 56.281914 144.45419
71.721794 56.260952 144.47607
71.708221 56.220245 144.48422
71.69207 56.171642 144.4866
71.6726 56.112896 144.48183
71.65654 56.064587 144.48384
71.638573 56.010422 144.48184
71.621498 55.958981 144.48123
71.604279 55.907112 144.48022
71.588043 55.858223 144.48019
71.571671 55.808247 144.47934
71.555672 55.759388 144.47884
71.540344 55.713947 144.48062
71.524452 55.666111 144.48051
71.508804 55.619011 144.48087
71.492485 55.569824 144.47897
71.475555 55.518784 144.47534
71.459854 55.471512 144.47417
71.440781 55.413902 144.46484
71.423866 55.362881 144.45984
71.412407 55.328552 144.46753
71.588951 55.933712 148.02161
71.57016 55.877041 148.00883
71.554924 55.831326 148.00941
71.539482 55.78495 148.00845
71.523865 55.738041 148.00648
71.509354 55.694546 148.00887
71.492279 55.643139 148.00142
71.478157 55.600857 148.0047
71.463097 55.555656 148.0042
71.442398 55.492985 147.98012
71.426964 55.446594 147.97646
71.41037 55.396622 147.9686
71.391747 55.340363 147.95148
71.37925 55.30307 147.95987
71.361549 55.249649 147.94583
71.343407 55.194859 147.92926
71.326149 55.142776 147.91603
71.310654 55.096142 147.90929
71.297127 55.055618 147.91071
71.282951 55.013081 147.90952
71.322845 55.216621 151.40808
71.305794 55.165447 151.40254
71.290695 55.120396 151.40898
71.273399 55.067371 151.39899
71.253929 55.007565 151.37732
71.750198 56.3573 138.12181
71.747101 56.348206 138.15004
71.748856 56.353752 138.17555
71.65995 56.085361 138.25096
71.678871 56.142792 138.26633
71.70887 56.2337 138.27629
71.698242 56.201843 138.30777
71.685562 56.16378 138.34004
71.675934 56.134933 138.37022
71.755714 56.376293 138.35692
71.925163 56.888695 138.3026
71.904533 56.826908 138.36858
71.799011 56.509579 138.63019
71.809074 56.540272 138.65298
71.806236 56.531979 138.68056
71.58712 55.869816 138.78125
71.986137 57.077091 138.73238
71.986259 57.077751 138.76071
72.036224 57.229156 138.77484
72.009705 57.149273 138.81087
72.003326 57.130287 138.84113
72.000359 57.121632 138.87057
72.355507 58.196335 138.84566
72.457039 58.503754 138.85535
72.457169 58.504517 138.88878
72.45726 58.505157 138.92195
72.457008 58.504753 138.95531
72.456474 58.503529 138.98857
72.456154 58.502926 139.02214
72.456184 58.503387 139.05528
72.456413 58.504456 139.08838
72.455437 58.501877 139.12189
72.45575 58.503201 139.1546
72.45462 58.500172 139.18808
72.454948 58.501549 139.22137
72.454765 58.501392 139.25461
72.453773 58.498764 139.28802
72.45462 58.501713 139.32091
72.454102 58.500538 139.35426
72.453629 58.499485 139.38712
72.454132 58.501427 139.42076
72.453514 58.499939 139.45396
72.453873 58.501431 139.48738
72.453102 58.499489 139.52034
72.452141 58.496975 139.55316
72.454041 58.502354 139.58623
72.453308 58.499794 139.61964
72.452095 58.497284 139.6528
72.457108 58.512863 139.68643
72.451965 58.497726 139.71953
72.451271 58.496017 139.75243
72.451477 58.497051 139.78552
72.450859 58.495613 139.81842
72.449509 58.491932 139.8515
72.450775 58.496204 139.88519
72.448723 58.490402 139.91855
72.450012 58.494717 139.95168
72.44883 58.49157 139.98476
72.447701 58.488571 140.01746
72.447311 58.487831 140.05052
72.446655 58.486275 140.08365
72.445724 58.483879 140.1171
72.445938 58.484962 140.15028
72.445091 58.482845 140.1835
72.44516 58.48349 140.21657
72.444099 58.480709 140.24951
72.444405 58.4813 140.28271
72.444199 58.48035 140.31606
72.44342 58.479221 140.34927
72.443153 58.478859 140.38255
72.442932 58.478638 140.41576
72.442039 58.476387 140.44914
72.441597 58.475494 140.48218
72.441658 58.476143 140.5155
72.440979 58.474525 140.54898
72.440582 58.473782 140.5822
72.439514 58.471024 140.61545
72.439117 58.47028 140.64894
72.438942 58.470207 140.68192
72.439018 58.470135 140.71542
72.438522 58.468323 140.7486
72.434013 58.45591 140.78078
72.385246 58.308601 140.79494
72.384987 58.308292 140.82756
72.380264 58.294434 140.85858
72.376289 58.282852 140.88972
72.373436 58.274689 140.92143
72.369148 58.262165 140.95271
72.365921 58.252853 140.9843
72.382256 58.302856 141.02516
72.379868 58.296108 141.05754
72.432411 58.455879 141.11674
72.426476 58.437603 141.14717
71.990463 57.115585 140.95445
71.997322 57.137489 140.98752
72.00666 57.166245 141.02188
72.361893 58.243282 141.21391
72.311317 58.090443 141.21945
72.24791 57.89864 141.2166
72.188103 57.717781 141.21402
72.397072 58.398052 144.37312
72.397209 58.399212 144.41425
72.395859 58.395893 144.45392
72.394508 58.392548 144.49278
72.388084 58.37289 144.52307
72.342407 58.23365 144.48953
72.32505 58.182373 144.50235
72.154556 57.667255 144.496
72.133881 57.604977 144.49965
72.109535 57.531513 144.49646
72.088326 57.467587 144.49812
72.066582 57.401268 144.49828
72.045677 57.33749 144.49905
72.023842 57.272411 144.49825
72.003174 57.210125 144.49898
71.981079 57.143486 144.49693
71.960976 57.082916 144.49809
71.941353 57.023811 144.49988
71.919441 56.957684 144.49625
71.898476 56.894478 144.49409
71.875717 56.825016 144.4875
71.828316 56.68037 144.43329
71.779755 56.533665 144.37737
71.760742 56.476368 144.37666
71.749977 56.444225 144.39189
71.739632 56.413357 144.40714
71.738869 56.411766 144.44177
71.718086 56.349026 144.43625
71.704765 56.308376 144.44511
71.696434 56.282974 144.46445
71.68837 56.259785 144.4848
71.669891 56.204098 144.4827
71.653641 56.15519 144.48457
71.635712 56.101151 144.48312
71.61805 56.047932 144.48106
71.601265 55.997379 144.4814
71.584778 55.94775 144.4819
71.567657 55.896168 144.4808
71.55249 55.85054 144.48322
71.53463 55.796021 144.4791
71.519516 55.749882 144.48051
71.502647 55.699696 144.47845
71.487282 55.653458 144.47937
71.472633 55.609425 144.48158
71.455017 55.556305 144.47723
71.439537 55.509678 144.47649
71.421173 55.454243 144.46878
71.40506 55.405693 144.46625
71.389816 55.359783 144.46526
71.376526 55.319866 144.46906
71.549736 55.912594 148.00972
71.534279 55.866192 148.00903
71.517853 55.816799 148.00494
71.503166 55.772781 148.00671
71.487846 55.726776 148.00552
71.471313 55.677048 147.99995
71.457947 55.637074 148.0065
71.441643 55.588036 148.0013
71.426483 55.542519 148.00003
71.405556 55.479191 147.97548
71.393791 55.444138 147.98654
71.378113 55.397003 147.98167
71.359413 55.340523 147.965
71.337524 55.274147 147.93405
71.31916 55.218697 147.91716
71.301102 55.164154 147.90096
71.291283 55.135105 147.91824
71.276627 55.091076 147.91533
71.268623 55.067657 147.94006
71.252495 55.019047 147.93016
71.28653 55.202339 151.40421
71.270096 55.153122 151.40288
71.252045 55.09774 151.38919
71.234169 55.042923 151.37672
71.57473 55.930748 138.21745
71.596283 55.99612 138.23009
71.626335 56.087173 138.23825
71.627785 56.091789 138.26323
71.622383 56.075699 138.29169
71.534042 55.808933 138.36353
71.634972 56.114201 138.33606
71.641579 56.134411 138.3582
71.640556 56.131573 138.38422
71.4888 55.674732 138.64911
71.769768 56.524586 138.64178
72.420273 58.492222 138.50485
72.430779 58.524311 138.53503
72.425629 58.509079 138.57042
72.427467 58.514961 138.60321
72.033493 57.323975 138.75099
72.043686 57.355072 138.77731
72.429169 58.521442 138.7365
72.4235 58.505314 138.83797
72.42646 58.514629 138.87039
72.426498 58.515087 138.90358
72.426193 58.5145 138.93695
72.426079 58.514511 138.97015
72.425941 58.514446 139.00383
72.425369 58.513077 139.03732
72.425316 58.513256 139.07059
72.426552 58.517361 139.10355
72.424858 58.512577 139.13678
72.42485 58.512909 139.16977
72.423866 58.510311 139.20335
72.424026 58.511162 139.23666
72.42321 58.50906 139.27007
72.423302 58.509697 139.30325
72.423439 58.51046 139.33607
72.42244 58.507805 139.3692
72.422188 58.50742 139.40239
72.422218 58.507881 139.43556
72.424171 58.514175 139.46893
72.421303 58.505886 139.50253
72.421463 58.506744 139.53583
72.422295 58.50964 139.56851
72.421829 58.507847 139.60144
72.421333 58.505947 139.63449
72.421669 58.508133 139.66805
72.421967 58.509422 139.70135
72.421455 58.508244 139.73428
72.420975 58.507195 139.76733
72.42086 58.507225 139.80064
72.418198 58.499561 139.8336
72.419807 58.504837 139.86719
72.41951 58.504326 139.90025
72.418694 58.502274 139.93361
72.418091 58.500843 139.96663
72.417534 58.499557 139.99942
72.417572 58.500065 140.03229
72.41748 58.500214 140.06564
72.416733 58.49836 140.09889
72.41571 58.495678 140.13234
72.41481 58.493374 140.16566
72.414749 58.493587 140.19881
72.414421 58.493015 140.23155
72.414047 58.49152 140.26472
72.413559 58.489693 140.29774
72.413658 58.491203 140.33141
72.413025 58.4897 140.36472
72.413452 58.491432 140.39795
72.412056 58.487621 140.43071
72.412094 58.488159 140.46437
72.411247 58.486034 140.49728
72.411987 58.488712 140.53133
72.411537 58.487797 140.56441
72.410667 58.485584 140.59749
72.409599 58.482784 140.63063
72.408875 58.481049 140.66402
72.409454 58.482475 140.69743
72.409256 58.482758 140.76442
72.356987 58.324837 140.77776
72.353951 58.316071 140.80949
72.352043 58.310753 140.84157
72.347397 58.297104 140.87244
72.345032 58.290398 140.90439
72.341774 58.280983 140.93614
72.337563 58.268661 140.9673
72.333611 58.257156 140.99878
72.349258 58.305035 141.03902
72.348663 58.303684 141.0719
72.403969 58.471035 141.13264
71.97538 57.171658 140.94644
71.960152 57.126602 140.96791
71.960472 57.127995 140.99753
72.31324 58.19788 141.21928
72.252205 58.013306 141.21822
72.190506 57.826702 141.21571
72.36795 58.409912 144.39278
72.366104 58.405022 144.43085
72.365479 58.403877 144.47139
72.36335 58.398125 144.50905
72.347099 58.347672 144.52281
72.307777 58.229504 144.50047
72.290398 58.177288 144.51274
72.117538 57.654961 144.50121
72.093872 57.583576 144.49934
72.070099 57.511868 144.49734
72.049446 57.449642 144.4998
72.027763 57.382717 144.4993
72.005249 57.315571 144.49738
71.983749 57.250763 144.49683
71.962395 57.186363 144.4958
71.942055 57.125076 144.4969
71.920311 57.059502 144.4951
71.898842 56.994755 144.49307
71.87767 56.930889 144.49071
71.75296 56.55122 144.29085
71.74762 56.534916 144.31628
71.761063 56.575897 144.37808
71.739174 56.510551 144.37228
71.722389 56.460037 144.37611
71.712616 56.430912 144.39278
71.705025 56.408459 144.41405
71.701859 56.399483 144.44357
71.674561 56.316193 144.42433
71.669075 56.299442 144.44901
71.662697 56.281384 144.47308
71.652596 56.25127 144.48839
71.63298 56.192108 144.48404
71.616219 56.141636 144.4847
71.598358 56.087803 144.48282
71.580879 56.035137 144.48163
71.564232 55.985012 144.4821
71.547371 55.934235 144.48163
71.53035 55.882938 144.48044
71.513672 55.832031 144.47884
71.498451 55.785572 144.47995
71.482315 55.737637 144.47983
71.466278 55.689346 144.47955
71.449898 55.640018 144.47804
71.43589 55.597908 144.48166
71.418472 55.545383 144.47722
71.400871 55.492294 144.47171
71.38562 55.446369 144.47099
71.368546 55.394886 144.46584
71.35218 55.345554 144.46208
71.529747 55.9492 148.01157
71.513611 55.900719 148.00955
71.49765 55.852768 148.00722
71.484039 55.812038 148.01302
71.4683 55.764744 148.01044
71.453545 55.720501 148.01152
71.438522 55.675446 148.01253
71.422882 55.628468 148.01016
71.40535 55.575623 147.99977
71.389145 55.526875 147.99377
71.370064 55.469231 147.97589
71.349747 55.407768 147.9521
71.268074 55.241371 151.41115
71.251228 55.190849 151.40723
71.234161 55.139618 151.40157
71.216087 55.084175 151.38756
71.201233 55.038822 151.39294
71.535156 55.915836 138.3329
71.556412 55.98074 138.39664
71.570488 56.023525 138.41469
72.397079 58.525574 138.48372
71.667313 56.319164 138.75667
72.395386 58.521057 138.55168
72.248184 58.076233 138.63051
72.241844 58.057358 138.66428
71.906898 57.04472 138.79153
71.901405 57.028389 138.82111
71.990921 57.299377 138.82553
72.018799 57.38398 138.84756
72.018341 57.382877 138.87729
72.19294 57.911236 138.86607
72.304634 58.249382 138.8726
72.394806 58.522446 138.88591
72.395378 58.524502 138.91887
72.394432 58.521961 138.95222
72.395798 58.526432 138.98528
72.395103 58.524658 139.01904
72.394051 58.521801 139.05235
72.394531 58.52359 139.08554
72.394974 58.525265 139.11848
72.394211 58.523285 139.1517
72.394196 58.523567 139.18469
72.393364 58.5214 139.21849
72.392258 58.518402 139.25192
72.393555 58.522655 139.285
72.393318 58.522289 139.31812
72.393127 58.522057 139.35107
72.392357 58.520065 139.38431
72.392174 58.519863 139.41739
72.392189 58.520279 139.45105
72.393196 58.52367 139.48409
72.391891 58.520077 139.51743
72.39212 58.521126 139.55048
72.391525 58.518909 139.58318
72.391838 58.51944 139.61612
72.910858 60.090126 139.62628
72.390945 58.517879 139.64964
72.393623 58.526344 139.68329
72.391716 58.520939 139.71642
72.390717 58.51828 139.74954
72.392189 58.523117 139.78261
72.390175 58.517403 139.81578
72.388451 58.512543 139.84859
72.38974 58.516827 139.88193
72.3881 58.512222 139.91507
72.387589 58.51107 139.94847
72.387444 58.511002 139.98178
72.387421 58.511326 140.01465
72.387367 58.511539 140.04764
72.385864 58.50737 140.08076
72.385345 58.506184 140.11392
72.387054 58.511757 140.14763
72.383881 58.502544 140.1803
72.384277 58.504131 140.21353
72.383698 58.502785 140.24646
72.384094 58.503597 140.27994
72.383904 58.502659 140.31316
72.382515 58.499622 140.34645
72.383194 58.50209 140.38011
72.381271 58.496662 140.41284
72.381424 58.497532 140.44603
72.380989 58.496632 140.47919
72.380836 58.496574 140.51244
72.379936 58.494259 140.54573
72.380013 58.494915 140.57933
72.37928 58.493111 140.61258
72.380074 58.495926 140.64636
72.378799 58.492496 140.67944
72.379227 58.493435 140.71246
72.378204 58.489975 140.74545
72.375656 58.483459 140.7784
72.324715 58.329552 140.79173
72.32531 58.331779 140.8252
72.319595 58.314877 140.85567
72.316177 58.304943 140.88705
72.312401 58.293945 140.91849
72.309151 58.284512 140.94998
72.304611 58.271194 140.98108
72.321732 58.323528 141.0224
72.318375 58.313782 141.05394
72.371872 58.476379 141.11357
72.372597 58.478233 141.1476
71.929993 57.13649 140.952
71.931618 57.142479 140.98216
72.319542 58.318779 141.2207
72.258018 58.132725 141.2202
72.193199 57.936684 141.2168
72.134239 57.758366 141.2149
72.337654 58.417587 144.36925
72.337479 58.41774 144.40968
72.336487 58.415443 144.44943
72.336197 58.415287 144.49055
72.331894 58.402046 144.52467
72.285919 58.261948 144.49074
72.268913 58.211712 144.50417
72.075821 57.628464 144.49828
72.053528 57.561253 144.49869
72.029846 57.489815 144.49606
72.008316 57.424118 144.4966
71.984772 57.35231 144.49254
71.955826 57.265564 144.47873
71.936172 57.206375 144.48134
71.920204 57.158394 144.4903
71.898109 57.091755 144.48804
71.877625 57.030006 144.48816
71.858116 56.97123 144.48914
71.815331 56.84148 144.4458
71.721893 56.556564 144.30402
71.776268 56.722282 144.44402
71.723297 56.56218 144.37906
71.703735 56.503227 144.37787
71.692947 56.470982 144.39281
71.684799 56.446812 144.41283
71.681908 56.438686 144.44339
71.651764 56.347389 144.41898
71.645294 56.327637 144.44173
71.638016 56.305412 144.46278
71.632111 56.288792 144.48718
71.614143 56.234661 144.48672
71.595222 56.177593 144.48347
71.577965 56.125622 144.4828
71.560753 56.073761 144.48224
71.543953 56.023167 144.48219
71.526695 55.971188 144.48146
71.509529 55.919456 144.48015
71.493156 55.870144 144.47983
71.47673 55.82 144.47873
71.461548 55.773659 144.48004
71.446297 55.728436 144.48187
71.429588 55.678082 144.47981
71.414139 55.631596 144.48048
71.396759 55.579197 144.47595
71.380119 55.529049 144.4731
71.364365 55.48159 144.47127
71.349167 55.435837 144.47066
71.332825 55.386581 144.4673
71.318863 55.344597 144.46942
71.23243 55.228691 151.41145
71.214973 55.17625 151.40373
71.197968 55.124168 151.39642
71.179741 55.068245 151.38091
71.398453 55.608742 138.72874
71.686455 56.479824 138.64709
71.687927 56.484512 138.67274
71.871361 57.039436 138.63582
71.641632 56.344971 138.741
71.871971 57.04179 138.69261
71.871918 57.041866 138.7209
71.868858 57.032875 138.75008
71.866165 57.024963 138.77898
71.864372 57.019802 138.80763
71.859421 57.005062 138.83679
72.319321 58.396927 138.81172
72.286957 58.299332 138.8522
72.282875 58.287273 138.88525
72.36396 58.532837 138.90085
72.363663 58.532253 138.93422
72.363571 58.532272 138.96753
72.363602 58.532677 139.00104
72.36422 58.534863 139.03421
72.364571 58.536224 139.06731
72.363785 58.534161 139.10056
72.363754 58.534363 139.13356
72.362587 58.531155 139.16707
72.362953 58.532578 139.20012
72.362343 58.531063 139.23364
72.362251 58.531097 139.26697
72.361496 58.529129 139.30023
72.362274 58.531796 139.33313
72.361679 58.530331 139.36636
72.362076 58.531849 139.39952
72.361565 58.530647 139.43262
72.361031 58.52935 139.46605
72.360374 58.527706 139.49948
72.361412 58.531181 139.53265
72.36158 58.531574 139.59842
72.361404 58.530628 139.63147
72.360428 58.528778 139.66499
72.363724 58.539093 139.69833
72.353889 58.509666 139.73112
72.359856 58.528084 139.7644
72.359909 58.528599 139.79749
72.360008 58.529243 139.83058
72.358109 58.523846 139.86385
72.358292 58.524746 139.89743
72.357895 58.523899 139.93036
72.356987 58.521507 139.96384
72.356125 58.519272 139.99657
72.356415 58.5205 140.02936
72.356117 58.519951 140.06242
72.354591 58.515713 140.0959
72.355469 58.518726 140.12956
72.354195 58.515251 140.16258
72.353371 58.513115 140.19533
72.353752 58.514637 140.22882
72.352699 58.511047 140.26135
72.35363 58.51347 140.29495
72.352493 58.511192 140.32831
72.352898 58.512787 140.36163
72.352242 58.511181 140.39494
72.351089 58.508072 140.42789
72.350754 58.507442 140.4613
72.351799 58.51099 140.4948
72.349754 58.505199 140.5276
72.349548 58.504971 140.56099
72.349152 58.504169 140.59433
72.348648 58.503025 140.62766
72.348335 58.502483 140.66106
72.34948 58.505573 140.69456
72.347466 58.499084 140.72729
72.347435 58.500179 140.76108
72.29612 58.345116 140.77457
72.294884 58.341766 140.80704
72.291199 58.331009 140.83862
72.288422 58.323006 140.8703
72.284233 58.310703 140.90109
72.281532 58.302937 140.93309
72.275917 58.286339 140.96397
72.273712 58.280071 140.99577
72.289352 58.327885 141.03648
72.288315 58.325146 141.06902
72.343712 58.492702 141.13
71.917297 57.200123 140.94511
71.901001 57.151798 140.96597
71.900421 57.150417 140.99489
72.262764 58.249073 141.22179
72.198318 58.054153 141.21919
72.135712 57.864788 141.21594
72.308273 58.428905 144.38843
72.307716 58.427914 144.42894
72.306328 58.424377 144.4678
72.305679 58.423084 144.50839
72.289154 58.371777 144.52173
72.248978 58.251015 144.4976
72.232643 58.201973 144.5116
72.060707 57.682468 144.50204
72.037041 57.611073 144.50021
72.015495 57.546131 144.50189
71.993629 57.480232 144.50256
71.971176 57.410954 144.50089
71.950562 57.349594 144.50243
71.927803 57.280945 144.49939
71.907303 57.219154 144.50014
71.887764 57.160316 144.50278
71.865692 57.093742 144.50032
71.845108 57.031693 144.49988
71.825096 56.971371 144.50008
71.80336 56.905788 144.49617
71.783203 56.844265 144.49452
71.748665 56.738949 144.46504
71.684982 56.546238 144.37946
71.676208 56.520142 144.39877
71.665329 56.48764 144.41357
71.661743 56.477352 144.44267
71.651329 56.446251 144.45805
71.627792 56.374432 144.4464
71.612099 56.326542 144.45039
71.605812 56.308727 144.47455
71.59343 56.271641 144.48557
71.576279 56.219971 144.48607
71.55732 56.162804 144.48244
71.540924 56.113449 144.4834
71.52346 56.060829 144.48215
71.506699 56.010357 144.48228
71.488976 55.956947 144.48013
71.472389 55.907001 144.48044
71.456116 55.857975 144.48003
71.440155 55.808582 144.47937
71.424309 55.761536 144.47966
71.408905 55.715191 144.48082
71.39325 55.668053 144.48083
71.378639 55.624119 144.48328
71.360428 55.569172 144.47681
71.345001 55.522736 144.47659
71.326347 55.466427 144.46794
71.312599 55.425087 144.47064
71.295845 55.37458 144.46605
71.270775 55.298649 144.44156
71.214226 55.268623 151.41959
71.19561 55.212555 151.40492
71.179298 55.163708 151.40416
71.160927 55.107361 151.38812
71.143593 55.05426 151.37917
71.405388 55.730213 138.24628
71.397865 55.710384 138.70482
71.610497 56.353592 138.64957
71.653 56.482338 138.66006
71.870346 57.139847 138.61034
71.632721 56.421448 138.71922
71.840004 57.048546 138.67723
71.891365 57.204109 138.68948
71.836784 57.03928 138.73505
72.151604 57.991432 138.63835
71.834274 57.031902 138.7641
71.886986 57.191566 138.77719
71.867523 57.132954 138.81114
72.255821 58.308479 138.83432
72.253021 58.300293 138.8676
72.33342 58.543766 138.88315
72.335022 58.548904 138.91589
72.333076 58.543293 138.94958
72.333054 58.543503 138.98288
72.332756 58.542908 139.01645
72.332977 58.54385 139.04968
72.332611 58.54303 139.08287
72.332832 58.543999 139.11597
72.333023 58.544857 139.14882
72.332626 58.543964 139.1821
72.331573 58.54108 139.21568
72.330177 58.53714 139.24927
72.331093 58.540207 139.2825
72.331734 58.542446 139.31528
72.33046 58.538895 139.34845
72.330956 58.540703 139.38148
72.330322 58.539082 139.41469
72.33004 58.538548 139.44812
72.330826 58.541229 139.48152
72.330315 58.540012 139.51483
72.330406 58.540588 139.54764
72.330452 58.540272 139.58083
72.329445 58.53677 139.61349
72.32943 58.537823 139.64691
72.3293 58.537743 139.68045
72.329758 58.539459 139.71378
72.330345 58.54155 139.74689
72.329163 58.538315 139.78001
72.327881 58.534744 139.81287
72.328438 58.536766 139.84598
72.327705 58.534882 139.87912
72.327171 58.533604 139.91238
72.326759 58.532696 139.94556
72.325691 58.529785 139.97874
72.325447 58.529392 140.01181
72.32486 58.52795 140.04471
72.324928 58.528511 140.07832
72.324821 58.528522 140.11131
72.323883 58.526035 140.14464
72.324173 58.527256 140.17784
72.322945 58.523876 140.21063
72.32222 58.522049 140.24365
72.322708 58.523102 140.27713
72.322533 58.52216 140.31049
72.321548 58.520313 140.34375
72.320923 58.51878 140.37682
72.320969 58.519272 140.41006
72.320663 58.518715 140.44325
72.320869 58.519695 140.47672
72.320023 58.517509 140.50977
72.320938 58.520645 140.54349
72.318687 58.514202 140.57648
72.319221 58.51619 140.61002
72.318069 58.513081 140.64337
72.318222 58.513916 140.67682
72.318512 58.514385 140.70979
72.317734 58.511646 140.74275
72.316055 58.50771 140.77614
72.264572 58.352139 140.78943
72.264015 58.350834 140.82242
72.260025 58.339127 140.8535
72.256462 58.328709 140.88495
72.252083 58.31583 140.91611
72.249229 58.307587 140.94766
72.246346 58.299236 140.97929
72.256989 58.331863 141.01744
72.258583 58.337112 141.05157
72.307617 58.486088 141.10907
72.312454 58.500378 141.14514
71.869926 57.159088 140.94989
71.869873 57.159943 140.97905
71.871284 57.164585 141.00916
72.264755 58.357056 141.22127
72.20314 58.170723 141.22105
72.139114 57.977066 141.21783
72.077904 57.791939 141.21489
72.279465 58.441437 144.36821
72.278313 58.438599 144.40714
72.279022 58.441422 144.44952
72.277122 58.43631 144.48824
72.274986 58.429611 144.52534
72.237831 58.316376 144.50587
72.214859 58.24799 144.50946
72.020515 57.660927 144.5022
71.997299 57.590927 144.50122
71.975945 57.52655 144.50275
71.954407 57.460861 144.50378
71.932037 57.392605 144.50175
71.910698 57.32906 144.50166
71.890663 57.268703 144.50392
71.867561 57.198994 144.5
71.847321 57.137985 144.50099
71.826431 57.075008 144.50035
71.80603 57.013523 144.49979
71.78447 56.948483 144.49701
71.765381 56.890232 144.4975
71.744118 56.825336 144.49341
71.711151 56.726299 144.46764
71.658539 56.566624 144.40262
71.647926 56.534939 144.41852
71.645157 56.527115 144.44922
71.633415 56.491974 144.46254
71.620186 56.452278 144.47202
71.601509 56.395287 144.47021
71.583595 56.340622 144.46996
71.573723 56.311855 144.48653
71.555725 56.257629 144.48575
71.537773 56.203548 144.48456
71.519829 56.149464 144.48274
71.502853 56.098331 144.48283
71.485451 56.045895 144.48166
71.468834 55.995857 144.48192
71.452599 55.946987 144.48242
71.435181 55.894485 144.48036
71.4198 55.84753 144.48146
71.403992 55.799271 144.48129
71.38871 55.753952 144.48285
71.371956 55.70348 144.48097
71.357506 55.660011 144.48367
71.340508 55.608784 144.48044
71.324074 55.55928 144.47836
71.306938 55.507607 144.4733
71.290642 55.458508 144.47031
71.273682 55.40736 144.46501
71.256119 55.354389 144.45882
71.17585 55.248211 151.40678
71.159859 55.200375 151.40782
71.142921 55.148499 151.40097
71.123947 55.090267 151.38136
71.598099 56.418819 138.60237
71.599953 56.425404 138.65378
71.808525 57.056404 138.6059
71.593452 56.406139 138.70833
71.809372 57.059376 138.66232
71.858391 57.207848 138.67476
72.300858 58.546104 138.53169
71.805092 57.046875 138.72032
71.801743 57.036934 138.74954
71.817024 57.083382 138.77313
71.794296 57.014858 138.80771
71.780602 56.973637 138.83925
72.106316 57.959354 138.81412
72.230194 58.334599 138.84842
72.22496 58.319008 138.88202
72.302917 58.555103 138.89825
72.302711 58.554749 138.93149
72.303413 58.557137 138.96454
72.302605 58.554943 138.99835
72.301979 58.553329 139.0316
72.302505 58.555183 139.06503
72.302597 58.555733 139.09814
72.301323 58.552143 139.13145
72.301582 58.5532 139.16452
72.300629 58.550591 139.19774
72.30098 58.551926 139.23128
72.301598 58.554092 139.26431
72.300781 58.551884 139.29745
72.299843 58.549335 139.33072
72.300598 58.55191 139.36398
72.299591 58.549152 139.39711
72.300201 58.551281 139.43025
72.299835 58.550457 139.46358
72.299271 58.549053 139.49701
72.299461 58.549915 139.52994
72.298912 58.548542 139.56299
72.299416 58.549603 139.59593
72.300674 58.552929 139.62926
72.300255 58.552742 139.66255
72.299019 58.549294 139.69582
72.300331 58.553574 139.72896
72.299179 58.550396 139.76186
72.298698 58.549244 139.79514
72.294891 58.538029 139.82777
72.297791 58.547108 139.86147
72.297592 58.546829 139.89478
72.296577 58.544083 139.92787
72.296707 58.544781 139.96123
72.2957 58.542061 139.99432
72.294594 58.539009 140.02715
72.294312 58.538479 140.05984
72.294762 58.54018 140.0934
72.293388 58.536335 140.12642
72.293686 58.537582 140.1601
72.292549 58.53447 140.19327
72.292336 58.534138 140.22603
72.292221 58.533352 140.25937
72.291992 58.532238 140.29245
72.291588 58.532112 140.32573
72.290985 58.530624 140.35892
72.291359 58.532104 140.39238
72.289833 58.527824 140.42509
72.290916 58.531445 140.45903
72.290337 58.530041 140.49191
72.289314 58.527298 140.52528
72.289589 58.528481 140.55894
72.287888 58.523663 140.59186
72.28756 58.523026 140.62486
72.287956 58.524601 140.65863
72.287636 58.523212 140.6916
72.287193 58.521442 140.72491
72.287102 58.522301 140.75867
72.235558 58.366543 140.77199
72.233383 58.360317 140.80455
72.231667 58.355473 140.8367
72.227974 58.344646 140.868
72.223862 58.332565 140.89894
72.220161 58.321724 140.93062
72.216675 58.311523 140.9621
72.213074 58.300995 140.9935
72.228111 58.346931 141.03391
72.227249 58.344681 141.06639
72.282455 58.511574 141.12698
71.861137 57.234673 140.94513
71.840141 57.172066 140.96347
71.839264 57.16975 140.99222
72.208893 58.290203 141.22267
72.142044 58.088005 141.21898
72.079559 57.899021 141.21635
72.249512 58.451378 144.38652
72.249298 58.451347 144.42723
72.247971 58.44796 144.46692
72.246597 58.444439 144.50606
72.232262 58.399769 144.52275
72.190811 58.275166 144.49724
72.174095 58.22496 144.51033
72.003525 57.70961 144.5033
71.979462 57.637012 144.50069
71.957108 57.569614 144.50084
71.936203 57.506622 144.50323
71.915535 57.442787 144.50464
71.892136 57.372952 144.50165
71.870872 57.308846 144.50134
71.8508 57.248379 144.5032
71.828903 57.182335 144.50099
71.807487 57.117756 144.49989
71.787476 57.057453 144.50029
71.766548 56.99435 144.49907
71.745522 56.930954 144.49669
71.727287 56.875282 144.49889
71.704369 56.805374 144.49184
71.663406 56.68198 144.45039
71.65419 56.65453 144.46965
71.625076 56.566456 144.44882
71.616898 56.542168 144.46895
71.600533 56.492928 144.4729
71.581024 56.43338 144.46938
71.560638 56.371189 144.46443
71.552841 56.348747 144.48508
71.535332 56.296024 144.48564
71.516808 56.240189 144.48372
71.500481 56.19104 144.48546
71.482697 56.137447 144.48367
71.464516 56.082638 144.48093
71.447792 56.032272 144.48091
71.431015 55.981766 144.48094
71.414574 55.932232 144.48105
71.398277 55.883171 144.48116
71.382767 55.83514 144.48151
71.366554 55.786991 144.48129
71.351143 55.740608 144.48209
71.335182 55.692539 144.48132
71.318871 55.64341 144.4798
71.302124 55.592953 144.47707
71.287918 55.550236 144.47954
71.26844 55.491405 144.46904
71.252769 55.444225 144.46745
71.238426 55.401077 144.46837
71.205254 55.300449 144.42522
71.157295 55.288094 151.41449
71.139801 55.235569 151.4072
71.123703 55.187363 151.40637
71.104912 55.129726 151.38823
71.089828 55.083637 151.39291
71.531548 56.319977 138.23871
71.523796 56.296688 138.26904
72.030685 57.829872 138.06229
72.022377 57.804928 138.0976
71.340446 55.743916 138.70107
71.542305 56.354599 138.64981
71.576157 56.45718 138.66353
71.776703 57.063919 138.61919
71.77533 57.059952 138.64774
71.777985 57.068176 138.67502
71.772964 57.053196 138.705
71.779243 57.072384 138.73148
71.829086 57.223358 138.74501
71.766617 57.034607 138.79167
71.59417 56.513153 138.86726
71.570953 56.443119 138.89949
72.116104 58.092419 138.78645
72.113449 58.084614 138.81883
72.216011 58.395123 138.82677
72.193901 58.328461 138.86446
72.271477 58.563404 138.88046
72.271225 58.562866 138.91371
72.271713 58.564594 138.94681
72.271652 58.564911 139.0134
72.271423 58.564457 139.04706
72.270752 58.562683 139.08018
72.270836 58.563183 139.11342
72.270645 58.562859 139.14632
72.270103 58.561497 139.17961
72.270638 58.563362 139.21312
72.269478 58.560127 139.24646
72.271194 58.565582 139.27998
72.270752 58.564503 139.31287
72.26973 58.561665 139.3459
72.270081 58.562992 139.37883
72.269455 58.561378 139.41205
72.270126 58.563694 139.44533
72.268967 58.560448 139.47903
72.268867 58.560413 139.51196
72.268105 58.558384 139.54515
72.26973 58.562817 139.57809
72.269753 58.562405 139.61092
72.26889 58.560848 139.64421
72.270027 58.564571 139.67767
72.261253 58.538288 139.71033
72.268433 58.560314 139.74423
72.26844 58.560638 139.77744
72.267403 58.557781 139.81042
72.267426 58.558147 139.84328
72.26757 58.558872 139.87662
72.266655 58.556408 139.90997
72.266655 58.556694 139.94307
72.265747 58.55426 139.9763
72.26458 58.551025 140.00912
72.264626 58.551476 140.04236
72.264801 58.552292 140.07564
72.263519 58.548721 140.10902
72.26252 58.546024 140.14186
72.262512 58.546291 140.17513
72.26152 58.543613 140.20821
72.261208 58.542984 140.24106
72.261475 58.543339 140.27437
72.264214 58.551167 140.30829
72.259964 58.539391 140.34064
72.259964 58.539726 140.37422
72.259705 58.539265 140.40752
72.260033 58.540592 140.44098
72.25901 58.537823 140.47372
72.258575 58.536835 140.50676
72.259026 58.538536 140.54059
72.257263 58.533535 140.57347
72.258125 58.536461 140.60722
72.257599 58.535217 140.64104
72.257378 58.534901 140.67412
72.257286 58.53418 140.70706
72.256134 58.530266 140.73987
72.255402 58.52916 140.77362
72.203545 58.37244 140.78656
72.204094 58.374451 140.81987
72.19809 58.356598 140.85034
72.195862 58.350197 140.88223
72.192345 58.339909 140.91379
72.188423 58.328362 140.94498
72.183678 58.314358 140.97588
73.788574 63.17646 141.71878
72.184555 58.317368 141.0096
72.196861 58.355011 141.0489
72.226501 58.445175 141.09625
72.252502 58.523529 141.14268
71.810043 57.18269 140.94783
71.808594 57.179283 140.97659
71.808327 57.17881 141.00557
72.185051 58.320271 141.20834
72.14444 58.197601 141.21951
72.083183 58.012341 141.21802
72.021965 57.82719 141.21527
72.214462 58.44574 144.35727
72.220398 58.46439 144.40685
72.218559 58.459423 144.44553
72.218216 58.459011 144.48607
72.217194 58.455658 144.5251
72.187729 58.365841 144.51839
72.157486 58.275333 144.51042
71.962593 57.686623 144.50229
71.93972 57.617657 144.50194
71.917831 57.551662 144.50243
71.897011 57.488155 144.5045
71.874741 57.420231 144.5034
71.852959 57.355316 144.50282
71.832001 57.292133 144.50273
71.810944 57.228664 144.50246
71.78862 57.161316 144.49951
71.767807 57.098579 144.49947
71.748154 57.039379 144.50075
71.727051 56.975723 144.49844
71.706642 56.913471 144.49675
71.686646 56.852444 144.49512
71.665565 56.789604 144.49236
71.633286 56.691929 144.4668
71.611168 56.625183 144.46063
71.589111 56.55862 144.45396
71.568878 56.497593 144.45003
71.563774 56.482643 144.47585
71.539467 56.408493 144.46286
71.531815 56.385078 144.48358
71.515373 56.336304 144.48668
71.496429 56.27919 144.48372
71.479149 56.227154 144.48381
71.461273 56.173298 144.48254
71.443703 56.120342 144.48102
71.427055 56.070221 144.4816
71.410049 56.01899 144.48106
71.393112 55.967979 144.48045
71.377815 55.921944 144.48264
71.361343 55.871662 144.48177
71.345886 55.82449 144.48216
71.329285 55.775143 144.48105
71.313591 55.727898 144.48131
71.298035 55.681061 144.48167
71.281647 55.631718 144.47997
71.265228 55.582241 144.47743
71.247795 55.529678 144.47197
71.229546 55.474602 144.46446
71.216492 55.435383 144.46828
71.201492 55.390232 144.46777
71.119041 55.269951 151.40511
71.10273 55.221077 151.40417
71.088554 55.177814 151.41321
71.066856 55.111134 151.37738
71.875412 57.46339 137.95863
71.398773 56.022141 138.25528
71.413055 56.065487 138.27258
71.501076 56.331818 138.25031
71.496262 56.317398 138.27913
71.496666 56.318779 138.30493
71.825378 57.313202 138.19423
71.74659 57.0765 138.60356
71.790405 57.209213 138.61653
71.786942 57.198929 138.64676
71.742142 57.063591 138.68999
71.785606 57.195263 138.70479
71.782349 57.185593 138.73431
71.73468 57.041576 138.77686
71.762375 57.125553 138.79713
72.084267 58.099903 138.80138
72.214851 58.495174 138.80217
72.172104 58.366085 138.84491
72.167198 58.351463 138.87872
72.241486 58.576427 138.89571
72.240746 58.574409 138.92894
72.241219 58.576077 138.96178
72.24073 58.574833 138.99553
72.239967 58.572762 139.02905
72.239563 58.571781 139.06273
72.239822 58.572807 139.09583
72.239731 58.572769 139.12871
72.240395 58.575256 139.19485
72.240677 58.576351 139.22816
72.239983 58.574493 139.26158
72.23996 58.574669 139.29491
72.239738 58.574257 139.328
72.238937 58.572083 139.36113
72.238884 58.572178 139.39421
72.238487 58.571224 139.42741
72.238602 58.571827 139.46083
72.238289 58.57114 139.49426
72.238327 58.571537 139.52768
72.238808 58.57325 139.56026
72.238777 58.572651 139.59332
72.234711 58.559841 139.62628
72.230385 58.547791 139.65965
72.238022 58.571167 139.69298
72.239029 58.574497 139.72647
72.232094 58.553761 139.75887
72.236877 58.56852 139.79236
72.235901 58.565845 139.82536
72.236069 58.566624 139.85881
72.237213 58.570385 139.89214
72.236137 58.567398 139.92535
72.23455 58.562878 139.95862
72.235596 58.56633 139.99187
72.23481 58.564243 140.02451
72.23336 58.560146 140.05728
72.233047 58.55949 140.09059
72.232544 58.55825 140.12387
72.232628 58.5588 140.15727
72.23111 58.554504 140.19049
72.231369 58.555588 140.22346
72.231102 58.554329 140.25677
72.231125 58.553928 140.28992
72.230347 58.552643 140.32286
72.229744 58.551128 140.35641
72.22905 58.54932 140.38934
72.229797 58.551903 140.42267
72.228004 58.546787 140.45567
72.22821 58.547722 140.48912
72.228294 58.548302 140.52271
72.227577 58.54644 140.55579
72.227051 58.54517 140.58908
72.22641 58.543556 140.62234
72.227455 58.547031 140.65622
72.226753 58.544468 140.68906
72.22625 58.542492 140.72209
72.225388 58.540997 140.75555
72.175171 58.389221 140.76965
72.172394 58.381142 140.80174
72.170212 58.374859 140.83394
72.166595 58.364258 140.86537
72.163116 58.354046 140.89671
72.159904 58.34465 140.92836
72.155975 58.333088 140.95929
72.150925 58.318115 140.98988
72.167679 58.369209 141.0312
72.166107 58.364799 141.06371
72.221794 58.533863 141.12473
71.804901 57.269783 140.94521
71.778175 57.189816 140.96072
71.779091 57.19289 140.99042
72.151207 58.320656 141.22171
72.08506 58.120594 141.21826
72.023575 57.934643 141.21629
72.189476 58.471676 144.3835
72.188972 58.470741 144.42389
72.188255 58.469177 144.46422
72.187782 58.468323 144.50446
72.174561 58.427032 144.52356
72.131912 58.298817 144.49617
72.113342 58.24295 144.50609
71.945732 57.736629 144.5042
71.921906 57.664757 144.50175
71.899857 57.598278 144.50278
71.877922 57.532158 144.50339
71.856003 57.464516 144.50275
71.834335 57.399975 144.50262
71.813095 57.335953 144.50269
71.791504 57.27084 144.50151
71.770584 57.207771 144.5014
71.749397 57.143909 144.5005
71.728355 57.080467 144.49913
71.707962 57.018997 144.49896
71.687073 56.956005 144.49686
71.668182 56.898342 144.4977
71.647903 56.836483 144.4955
71.627151 56.774643 144.4933
71.570816 56.603745 144.42117
71.552826 56.549561 144.42206
71.555 56.556755 144.46277
71.54351 56.522354 144.47617
71.521019 56.453739 144.46669
71.511986 56.426105 144.48424
71.495209 56.376324 144.48724
71.476257 56.319187 144.48488
71.458054 56.264347 144.48366
71.441109 56.213314 144.48387
71.423676 56.160797 144.48311
71.405136 56.104904 144.47937
71.388962 56.05621 144.48079
71.372269 56.005947 144.48088
71.355583 55.955677 144.48038
71.339958 55.908657 144.48221
71.323769 55.858574 144.48087
71.308235 55.812489 144.48192
71.292915 55.766373 144.4832
71.276619 55.717293 144.48222
71.260262 55.668018 144.4805
71.243271 55.616833 144.47713
71.228279 55.571709 144.47757
71.209534 55.515133 144.46892
71.193695 55.467426 144.46681
71.178574 55.421913 144.46606
71.145195 55.320709 144.4225
71.100266 55.310997 151.41458
71.082855 55.258736 151.40714
71.06778 55.213711 151.41277
71.048782 55.155457 151.39384
71.033943 55.110134 151.4001
71.843872 57.472126 137.97246
71.916588 57.692192 137.96245
71.707962 57.06139 138.10666
71.486237 56.391087 138.28027
71.468208 56.3367 138.31583
71.468498 56.337704 138.34149
71.977158 57.877274 138.43118
71.765953 57.238602 138.5415
71.717834 57.093578 138.64404
71.712616 57.077957 138.67387
71.765076 57.236828 138.68567
71.712799 57.078854 138.73058
71.704437 57.053749 138.76126
71.778969 57.279377 138.76805
71.532768 56.534775 138.86507
71.62294 56.807728 138.86711
72.056168 58.118515 138.7834
72.05407 58.112377 138.81578
72.132935 58.351154 138.82912
72.133446 58.352921 138.86165
72.210091 58.585018 138.8777
72.210548 58.586617 138.9108
72.210037 58.585278 138.94421
72.209244 58.583103 138.97728
72.20945 58.583946 139.01102
72.209694 58.584908 139.04436
72.209351 58.584095 139.07767
72.209679 58.585312 139.11075
72.209427 58.584759 139.14378
72.208817 58.583145 139.17673
72.209198 58.584538 139.21002
72.208138 58.581554 139.2437
72.207741 58.580597 139.27705
72.208412 58.582855 139.3102
72.209671 58.586906 139.34331
72.208229 58.582783 139.37624
72.208717 58.584492 139.40952
72.208855 58.585152 139.4427
72.208328 58.583805 139.47591
72.20816 58.583542 139.50934
72.207253 58.581039 139.54265
72.210068 58.589039 139.57549
72.207588 58.581032 139.60828
72.208153 58.583755 139.6416
72.208519 58.58511 139.67493
72.206726 58.579948 139.70828
72.207802 58.583469 139.74153
72.207825 58.583805 139.77461
72.207504 58.583084 139.8078
72.205185 58.576332 139.84068
72.204323 58.573986 139.87367
72.205063 58.5765 139.90732
72.204285 58.574417 139.94043
72.204178 58.57436 139.97375
72.203339 58.572086 140.00638
72.203712 58.573494 140.03954
72.203262 58.572411 140.07283
72.202385 58.570045 140.10605
72.202339 58.570175 140.13942
72.201469 58.567844 140.17253
72.201904 58.569431 140.2059
72.200272 58.564766 140.23872
72.200005 58.563492 140.27155
72.201035 58.566113 140.30504
72.199921 58.563812 140.33817
72.198761 58.560593 140.37157
72.198975 58.561546 140.40511
72.198235 58.559597 140.43791
72.197838 58.558704 140.47107
72.1978 58.55888 140.50447
72.197258 58.557545 140.53761
72.197227 58.557758 140.57092
72.197235 58.558079 140.60452
72.197037 58.557808 140.6382
72.196518 58.556526 140.67142
72.196342 58.55555 140.70457
72.195358 58.552109 140.73744
72.194641 58.551033 140.77097
72.142548 58.393585 140.78407
72.141098 58.389492 140.81644
72.137115 58.377762 140.84775
72.135132 58.372059 140.87985
72.129761 58.356129 140.91058
72.127319 58.349052 140.94243
72.123909 58.339046 140.97394
72.121094 58.330837 141.00555
72.135818 58.375782 141.04587
72.13681 58.379101 141.07939
72.190681 58.541882 141.13982
71.75692 57.227543 140.94952
71.747833 57.201004 140.97391
71.747566 57.200504 141.0031
72.089241 58.235916 141.21991
72.025185 58.042191 141.21721
71.966667 57.865231 141.21596
72.159355 58.482239 144.40207
72.158653 58.480694 144.44249
72.158241 58.480019 144.48306
72.157661 58.477993 144.52322
72.13221 58.400375 144.52271
72.097305 58.295715 144.50711
71.904701 57.713978 144.50287
71.881744 57.644753 144.502
71.860252 57.579983 144.50378
71.837959 57.511993 144.50357
71.816902 57.447754 144.50424
71.795113 57.382835 144.50369
71.773857 57.318756 144.50325
71.752327 57.253834 144.50214
71.731644 57.191479 144.50212
71.708527 57.121738 144.49785
71.689346 57.063976 144.50003
71.668755 57.001896 144.49887
71.647682 56.937592 144.49593
71.6287 56.879677 144.49614
71.608688 56.82008 144.49548
71.589073 56.760963 144.49461
71.559143 56.670471 144.47327
71.529518 56.58086 144.45166
71.51532 56.538235 144.46014
71.505035 56.507484 144.4758
71.494987 56.476742 144.49161
71.474945 56.415604 144.48672
71.456238 56.359928 144.48589
71.437698 56.304066 144.48366
71.421516 56.255356 144.48618
71.402931 56.199352 144.48335
71.385536 56.146931 144.48236
71.367577 56.092808 144.4798
71.350906 56.042622 144.47989
71.334213 55.99234 144.47993
71.318398 55.944752 144.48141
71.302589 55.896488 144.48189
71.286163 55.846344 144.48067
71.271111 55.801716 144.4825
71.254494 55.751648 144.48047
71.238739 55.704224 144.48042
71.221115 55.651108 144.47568
71.206184 55.606171 144.47679
71.187531 55.549904 144.46906
71.171822 55.502598 144.46732
71.158791 55.463444 144.47147
71.139046 55.403816 144.45963
71.063843 55.299744 151.41631
71.046249 55.246925 151.40797
71.030281 55.198071 151.40598
71.009583 55.134541 151.37691
70.994545 55.090691 151.38434
71.367393 56.136173 138.41356
71.467163 56.437969 138.60097
71.43483 56.341061 138.66505
71.472809 56.456085 138.67709
71.676743 57.073925 138.77377
71.666458 57.042976 138.8046
71.484299 56.492081 138.88191
71.663689 57.034935 138.86079
72.023521 58.123711 138.79848
72.127739 58.439205 138.8054
72.124489 58.429752 138.87196
72.178978 58.594814 138.89336
72.179192 58.595646 138.92639
72.178978 58.595196 138.95961
72.178574 58.594173 138.99297
72.180016 58.598747 139.02625
72.178673 58.594902 139.0596
72.179344 58.59713 139.09288
72.178406 58.594498 139.12614
72.17868 58.595558 139.15921
72.178223 58.594379 139.19226
72.178284 58.594772 139.22583
72.178383 58.595291 139.25916
72.178207 58.594994 139.29237
72.177612 58.593399 139.32538
72.17823 58.595505 139.35866
72.178421 58.59631 139.39148
72.178032 58.59536 139.4247
72.177765 58.594784 139.45825
72.177231 58.593388 139.49146
72.178223 58.596634 139.52498
72.17691 58.592896 139.55794
72.177132 58.59301 139.59076
72.176842 58.591602 139.62357
72.176132 58.590473 139.65685
72.172325 58.579197 139.68999
72.178368 58.597721 139.72382
72.176926 58.593594 139.75705
72.176071 58.591267 139.79007
72.176674 58.593342 139.82333
72.176544 58.593185 139.85629
72.175041 58.58889 139.88922
72.173576 58.584713 139.92264
72.173172 58.583759 139.95592
72.173058 58.583656 139.98911
72.173218 58.584412 140.022
72.172333 58.581974 140.05498
72.172188 58.581802 140.08807
72.173019 58.584595 140.1216
72.171005 58.578766 140.15437
72.170906 58.578739 140.18787
72.170471 58.577686 140.22081
72.170937 58.578579 140.25404
72.170181 58.575802 140.28725
72.16909 58.573559 140.32025
72.169441 58.57489 140.35403
72.168121 58.571175 140.38704
72.168564 58.572807 140.42041
72.169052 58.574554 140.45393
72.16748 58.57008 140.48665
72.16758 58.570675 140.5201
72.166397 58.567375 140.55328
72.167534 58.571102 140.58675
72.165802 58.566154 140.62003
72.165825 58.56654 140.65378
72.165924 58.566349 140.68677
72.166298 58.566998 140.71989
72.165291 58.565033 140.7533
72.151642 58.52401 140.78168
72.111069 58.401424 140.79892
72.109512 58.397018 140.83148
72.106842 58.389244 140.86333
72.102753 58.377151 140.89441
72.100182 58.369686 140.92599
72.09478 58.353619 140.95662
72.091888 58.345192 140.98845
72.108673 58.396336 141.02942
72.104248 58.383247 141.06055
72.160416 58.553707 141.12187
71.75042 57.310707 140.94618
71.737 57.271019 140.96881
72.117088 58.42234 141.16681
72.155289 58.538368 141.2204
72.095734 58.358299 141.22206
72.02803 58.153534 141.21797
71.961922 57.953571 141.21335
72.12989 58.494083 144.38142
72.129211 58.492573 144.42078
72.128464 58.490856 144.46089
72.127922 58.489788 144.5016
72.116486 58.453907 144.52385
72.072044 58.320282 144.49335
72.054085 58.26627 144.50441
71.887772 57.763905 144.50491
71.864265 57.693008 144.5032
71.841873 57.625481 144.50366
71.820534 57.56118 144.50494
71.797615 57.491264 144.50311
71.777428 57.429668 144.50485
71.755157 57.363285 144.50337
71.73381 57.298927 144.50284
71.711617 57.231991 144.50029
71.691154 57.170334 144.5009
71.669266 57.104309 144.49826
71.649918 57.046021 144.49979
71.629921 56.985767 144.49969
71.609207 56.922543 144.49669
71.589081 56.861145 144.49467
71.569336 56.802383 144.49487
71.549919 56.743862 144.49432
71.530907 56.686584 144.49431
71.510101 56.623817 144.48965
71.492409 56.570557 144.49144
71.474609 56.516228 144.49141
71.455391 56.457592 144.48854
71.436958 56.402748 144.48782
71.417625 56.344463 144.48457
71.399307 56.289268 144.48302
71.381935 56.236958 144.48303
71.364761 56.18523 144.48282
71.347313 56.132648 144.48154
71.330193 56.081085 144.48073
71.313156 56.029774 144.48024
71.296555 55.979782 144.48021
71.280273 55.930763 144.48026
71.265144 55.883904 144.48149
71.248611 55.834763 144.48061
71.233788 55.790184 144.48264
71.217064 55.739792 144.48059
71.201759 55.693733 144.48102
71.184578 55.641956 144.47723
71.167328 55.589947 144.47278
71.151581 55.54253 144.47128
71.136765 55.497944 144.47148
71.121033 55.45055 144.46922
71.098183 55.381477 144.45013
71.041985 55.331173 151.40834
71.026619 55.285267 151.41293
71.009308 55.233303 151.40602
70.991287 55.178085 151.39192
70.975426 55.12957 151.39062
71.239021 55.85194 138.44785
71.223587 55.805374 138.47942
71.388481 56.304699 138.63133
71.396172 56.328083 138.65421
71.396423 56.328999 138.6799
71.68985 57.217487 138.74532
71.636551 57.0564 138.78937
71.690514 57.219952 138.83058
